    2.009127       6.142079       0.138932    3       1
      2.007706       7.912722       1.869288    3       1
      1.991154       0.234504       6.225858    3       1
      2.004438       2.012570       7.947709    3       1
      0.132170       6.423694       4.594205    3       1
      0.121232       4.707579       6.356904    3       1
      0.112156       1.745912       3.447665    3       1
      0.133353       3.477234       1.699420    3       1
      1.616916       0.409052       0.433010    3       1
      2.440785       1.328828       1.334502    1      28
      2.851806       6.821529       1.215358    1      28
      1.024532       2.662625       2.635033    1      28
      2.228181       4.074223       4.036523    1      28
      2.841839       1.324731       6.872349    1      28
      1.028893       5.504779       5.421817    1      28
      2.446401       6.835373       6.724594    1      28
      1.625724       7.759900       7.624039    3       1
      4.302553       2.249854       0.306389    1      28
      5.222317       4.054990       1.502218    1      28
      4.890386       7.607499       0.412093    1      28
      4.959948       8.669804      -0.679649    3       1
      4.284669       0.312717       2.301874    1      28
      5.206179       1.529808       4.095616    1      28
      3.713280       5.310434       2.764053    1      28
      5.219466       6.607044       3.986518    1      28
      3.701824       2.830478       5.315474    1      28
      5.213475       4.083409       6.576653    1      28
      4.303245       7.842558       5.768526    1      28
      4.880182       0.535518       7.673723    1      28
      4.946916      -0.524279       8.768097    3       1
      4.295582       5.897752       7.761765    1      28
      5.783339       0.462792       0.522783    1      28
      5.744689      -0.628979      -0.541482    3       1
      7.782825       1.333313       1.386823    1      28
      6.318033       5.790924       0.329320    1      28
      8.208294       6.711035       1.328295    1      28
      6.645408       2.783294       2.798666    1      28
      8.001606       4.061129       4.041020    1      28
      6.319487       7.736822       2.224731    1      28
      6.302900       0.393993       5.855586    1      28
      8.197049       1.413463       6.753126    1      28
      6.648633       5.342732       5.283106    1      28
      7.787079       6.785551       6.700684    1      28
      6.308327       2.343490       7.734643    1      28
      5.791016       7.669367       7.552005    1      28
      5.758249       8.758222       8.612861    3       1
      9.672130       2.203328       0.332009    1      28
     10.715704       4.018111       1.433389    1      28
     10.196965       7.591543       0.426583    1      28
     10.199763       8.656503      -0.665622    3       1
      9.670332       0.296523       2.281708    1      28
     10.708147       1.447069       4.069489    1      28
      9.342479       5.311743       2.756739    1      28
     10.715515       6.665840       4.017458    1      28
      9.338188       2.807470       5.327743    1      28
     10.716497       4.096637       6.648997    1      28
      9.677958       7.815918       5.805988    1      28
     10.184571       0.529691       7.660729    1      28
     10.182827      -0.534598       8.753500    3       1
      9.675231       5.909856       7.756049    1      28
     11.173363       0.429009       0.504848    1      28
     11.142775      -0.661552      -0.561292    3       1
     13.203300       1.294091       1.350868    1      28
     11.713667       5.828984       0.278562    1      28
     13.602781       6.737674       1.296525    1      28
     12.102252       2.746252       2.768201    1      28
     13.410315       4.051693       4.042903    1      28
     11.716490       7.782146       2.184683    1      28
     11.705915       0.331664       5.905069    1      28
     13.597818       1.368900       6.789089    1      28
     12.109053       5.364071       5.317326    1      28
     13.211410       6.814140       6.735852    1      28
     11.711064       2.284963       7.805911    1      28
     11.181332       7.680484       7.581817    1      28
     11.153343       8.772345       8.646700    3       1
     15.101267       2.181894       0.327773    1      28
     16.117551       4.012913       1.438347    1      28
     15.613049       7.594824       0.418617    1      28
     15.638516       8.660142      -0.672948    3       1
     15.095270       0.286803       2.270918    1      28
     16.112605       1.445739       4.071673    1      28
     14.726412       5.319615       2.740476    1      28
     16.116397       6.652877       4.014325    1      28
     14.725454       2.783362       5.344716    1      28
     16.113960       4.089440       6.648044    1      28
     15.107052       7.813988       5.816747    1      28
     15.605915       0.510107       7.671957    1      28
     15.629603      -0.554172       8.764757    3       1
     15.103884       5.919507       7.763578    1      28
     16.604918       0.410495       0.500700    1      28
     16.580439      -0.681630      -0.564165    3       1
     18.621891       1.283696       1.353767    1      28
     17.116979       5.820235       0.277511    1      28
     19.002686       6.728814       1.298555    1      28
     17.516417       2.742703       2.770619    1      28
     18.841758       4.045480       4.037912    1      28
     17.119466       7.774194       2.186695    1      28
     17.114314       0.330916       5.905673    1      28
     18.998808       1.374358       6.794001    1      28
     17.517113       5.346867       5.308513    1      28
     18.623400       6.802220       6.727413    1      28
     17.110845       2.283960       7.810562    1      28
     16.615626       7.683481       7.586399    1      28
     16.598385       8.776328       8.650672    3       1
     20.512727       2.169315       0.317328    1      28
     21.532952       4.012410       1.409500    1      28
     20.971776       7.620933       0.387016    1      28
     20.957091       8.684598      -0.707253    3       1
     20.517993       0.281411       2.262942    1      28
     21.534450       1.410899       4.087973    1      28
     20.158092       5.322177       2.734835    1      28
     21.531198       6.684933       4.006408    1      28
     20.153368       2.774385       5.350493    1      28
     21.528568       4.081552       6.675954    1      28
     20.514697       7.819444       5.827039    1      28
     20.967782       0.484000       7.709101    1      28
     20.951500      -0.577885       8.805112    3       1
     20.507371       5.920103       7.774116    1      28
     22.018518       0.395515       0.483714    1      28
     21.972219      -0.698031      -0.579262    3       1
     24.057789       1.247424       1.315232    1      28
     22.499408       5.869613       0.265107    1      28
     24.405890       6.825308       1.202486    1      28
     22.909444       2.703389       2.739216    1      28
     24.145657       4.045575       4.046186    1      28
     22.501913       7.795081       2.134095    1      28
     22.499827       0.302717       5.964713    1      28
     24.406442       1.270976       6.893152    1      28
     22.906498       5.388065       5.348663    1      28
     24.051627       6.840045       6.776885    1      28
     22.499282       2.232815       7.827441    1      28
     22.013303       7.692971       7.609710    1      28
     21.967493       8.785901       8.673522    3       1
     25.942098       2.126738       0.244589    1      28
     26.698059       4.059448       1.377818    1      28
     26.611065       7.533361       0.475656    1      28
     26.741961       8.593576      -0.612233    3       1
     25.950675       0.196379       2.200847    1      28
     26.701446       1.364857       4.114537    1      28
     25.345228       5.377740       2.691962    1      28
     26.696360       6.726672       3.976092    1      28
     25.346721       2.710590       5.397145    1      28
     26.698187       4.028136       6.711332    1      28
     25.943409       7.891456       5.892827    1      28
     26.614392       0.561300       7.616699    1      28
     26.744400      -0.499101       8.704581    3       1
     25.935663       5.957334       7.845313    1      28
     27.644389       0.533283       0.592899    1      28
     27.715655      -0.556433      -0.478230    3       1
     29.428126       1.715526       1.753714    1      28
     28.055434       5.693668       0.380769    1      28
     29.806463       6.218227       1.835794    1      28
     27.873056       2.841421       2.872399    1      28
     29.281199       4.048027       4.046787    1      28
     28.050853       7.681926       2.314236    1      28
     28.055526       0.411892       5.778655    1      28
     29.808774       1.879359       6.258586    1      28
     27.868549       5.250919       5.218227    1      28
     29.417652       6.380304       6.340408    1      28
     28.058281       2.400674       7.713014    1      28
     27.634459       7.556694       7.502718    1      28
     27.704568       8.645314       8.575069    3       1
     30.992785       2.753093       1.615481    4      12
     31.530679       4.068234       2.307043    4      12
     31.611849       6.586960       1.470102    4      12
     32.024655       7.310130       0.737108    3       1
     30.994701       1.596524       2.790001    4      12
     31.531314       2.309564       4.094231    4      12
     30.509439       4.973643       3.107545    4      12
     31.525855       5.793101       4.004264    4      12
     30.510573       3.126037       4.988130    4      12
     31.527289       4.034762       5.791258    4      12
     30.984816       6.504581       5.307227    4      12
     31.614256       1.515739       6.628205    4      12
     32.027561       0.794051       7.362372    3       1
     30.984194       5.347710       6.481925    4      12
     32.057881       1.659668       1.693437    4      12
     32.162264       0.873602       0.919702    3       1
     33.250840       2.313036       2.334467    4      12
     32.326451       5.261142       1.676710    4      12
     33.600394       5.785474       2.296705    4      12
     32.478356       3.238783       3.248787    4      12
     33.391040       4.054443       4.051435    4      12
     32.321027       6.406831       2.803462    4      12
     32.326248       1.698502       5.296854    4      12
     33.602291       2.324507       5.807202    4      12
     32.474585       4.867253       4.852031    4      12
     33.242038       5.795992       5.768056    4      12
     32.324906       2.844144       6.423472    4      12
     32.045469       6.444930       6.406274    4      12
     32.145077       7.231339       7.180304    3       1
     34.526455       2.865236       1.720609    4      12
     35.277660       4.049792       2.354022    4      12
     34.799391       6.427749       1.651489    4      12
     34.737602       7.205824       0.863636    3       1
     34.528377       1.708873       2.890952    4      12
     35.278512       2.357774       4.066706    4      12
     34.315372       4.859216       3.239696    4      12
     35.273008       5.758025       4.040970    4      12
     34.316161       3.253307       4.865843    4      12
     35.274164       4.066469       5.753447    4      12
     34.518720       6.404596       5.215089    4      12
     34.802309       1.686874       6.455312    4      12
     34.741795       0.908910       7.243363    3       1
     34.518028       5.248173       6.385433    4      12
     35.411225       1.647272       1.671992    4      12
     35.317960       0.860396       0.894716    3       1
     36.792354       2.110620       2.126821    4      12
     35.841304       5.324213       1.629617    4      12
     37.104370       6.106868       1.989219    4      12
     36.300881       3.192895       3.198231    4      12
     37.218164       4.061287       4.055609    4      12
     35.836117       6.468722       2.759690    4      12
     35.841791       1.649491       5.349450    4      12
     37.106768       2.017322       6.123087    4      12
     36.296676       4.926624       4.911369    4      12
     36.782971       6.010589       5.983589    4      12
     35.839922       2.794371       6.479260    4      12
     35.399053       6.468949       6.435974    4      12
     35.301138       7.255612       7.212937    3       1
     38.036139       2.494132       0.667281    1      28
     39.563596       4.028027       1.468233    1      28
     38.324022       7.170497       0.919816    1      28
     37.737034       8.162835      -0.081158    3       1
     38.043958       0.663537       2.518985    1      28
     39.569507       1.474636       4.046020    1      28
     38.310159       5.115540       2.997878    1      28
     39.563879       6.654912       4.072091    1      28
     38.311598       3.012108       5.116193    1      28
     39.564037       4.100930       6.645633    1      28
     38.028470       7.465470       5.591730    1      28
     38.326634       0.958145       7.196094    1      28
     37.740328      -0.034357       8.197167    3       1
     38.030093       5.630246       7.440445    1      28
     39.419595       0.608115       0.627944    1      28
     39.220134      -0.468236      -0.433241    3       1
     41.753223       1.224185       1.236757    1      28
     40.179022       5.884797       0.216238    1      28
     42.061309       6.780843       1.320314    1      28
     40.936398       2.720413       2.722755    1      28
     42.111548       4.068454       4.059171    1      28
     40.176755       7.890682       2.203450    1      28
     40.179693       0.237711       5.914154    1      28
     42.060235       1.353476       6.797125    1      28
     40.936884       5.415919       5.396533    1      28
     41.743368       6.918318       6.883338    1      28
     40.177952       2.247313       7.903621    1      28
     39.402716       7.524761       7.484525    1      28
     39.197940       8.596285       8.549422    3       1
     43.674126       2.204975       0.336074    1      28
     44.708491       4.033321       1.466849    1      28
     44.087350       7.631275       0.467519    1      28
     44.140883       8.705146      -0.615152    3       1
     43.674964       0.331325       2.221753    1      28
     44.707325       1.478154       4.042964    1      28
     43.318997       5.381754       2.734245    1      28
     44.702682       6.664329       4.075639    1      28
     43.318362       2.755051       5.385215    1      28
     44.706095       4.106786       6.653551    1      28
     43.665464       7.808250       5.893649    1      28
     44.088520       0.506506       7.651302    1      28
     44.146484      -0.568746       8.732416    3       1
     43.669373       5.938944       7.777728    1      28
     45.160146       0.439880       0.453123    1      28
     45.157440      -0.643468      -0.621329    3       1
     47.138429       1.299945       1.312942    1      28
     45.605116       5.859858       0.273471    1      28
     47.449718       6.805154       1.300135    1      28
     46.184034       2.808145       2.807731    1      28
     47.654710       4.075566       4.060371    1      28
     45.603390       7.838652       2.237330    1      28
     45.606925       0.307300       5.883037    1      28
     47.458110       1.339118       6.819433    1      28
     46.178991       5.336305       5.313839    1      28
     47.132848       6.850023       6.804811    1      28
     45.604796       2.278178       7.845621    1      28
     45.152331       7.708427       7.659518    1      28
     45.146382       8.792188       8.733670    3       1
     48.845840       5.484167       2.636169    1      28
     48.850213       2.673141       5.485341    1      28
     48.310223       0.443686       7.719815    3       1
     48.295251       7.699980       0.399876    3       1
     49.750327       6.413743       3.444044    3       1
     49.745616       3.496581       6.410104    3       1
     47.994810       6.161269       7.860258    3       1
     47.986010       7.899121       6.095485    3       1
     49.752343       4.666478       1.717254    3       1
     47.999580       1.994265       0.260377    3       1
     47.993490       0.248691       2.016780    3       1
     49.764518       1.750334       4.680940    3       1
